ply
format ascii 1.0
element vertex 754
property float x
property float y
property float z
end_header
-1.73303830623626709 4.14025211334228516 -0.20209445059299469
-1.75241684913635254 4.10743951797485352 -0.227051764726638794
-1.73012900352478027 4.12748813629150391 -0.26262199878692627
-1.73560023307800293 4.17533683776855469 -0.271504312753677368
-1.72847914695739746 4.14399909973144531 -0.292722076177597046
-1.73168087005615234 4.14932918548583984 -0.271139442920684814
-1.73798155784606934 4.12946176528930664 -0.272405862808227539
-1.76805472373962402 4.12832117080688477 -0.23424193263053894
-1.75984644889831543 4.12907600402832031 -0.306022465229034424
-1.72380399703979492 4.16982412338256836 -0.24348488450050354
-1.75961768627166748 4.14989137649536133 -0.218557119369506836
-1.6702113151550293 4.01306009292602539 -0.259430944919586182
-1.74848663806915283 4.1548609733581543 -0.225121065974235535
-1.77984249591827393 4.12571811676025391 -0.190501108765602112
-1.7437053918838501 4.16944360733032227 -0.232038602232933044
-1.7165672779083252 4.16248035430908203 -0.197442725300788879
-1.77096343040466309 4.16305160522460938 -0.200667202472686768
-1.75894629955291748 4.1547703742980957 -0.18958243727684021
-1.75727880001068115 4.07310724258422852 -0.208041444420814514
-1.69535946846008301 4.13994932174682617 -0.260082215070724487
-1.76175880432128906 4.14828872680664062 -0.22799035906791687
-1.72190308570861816 4.12148332595825195 -0.239510476589202881
-1.75710010528564453 4.18265676498413086 -0.196327254176139832
-1.73028087615966797 4.19464778900146484 -0.239127352833747864
-1.73325490951538086 4.1230463981628418 -0.240685984492301941
-1.74192953109741211 4.15062379837036133 -0.240120097994804382
-1.7436830997467041 4.22729635238647461 -0.202967986464500427
-1.76587295532226562 4.17829751968383789 -0.226545199751853943
-1.77124857902526855 4.15870904922485352 -0.220173120498657227
-1.78419888019561768 4.14828395843505859 -0.217449501156806946
-1.75110578536987305 4.11826944351196289 -0.236394166946411133
-1.74205589294433594 4.20474004745483398 -0.206700131297111511
-1.73851156234741211 4.13028907775878906 -0.26114925742149353
-1.76951062679290771 4.16131925582885742 -0.266983568668365479
-1.73887920379638672 4.16892242431640625 -0.272839546203613281
-1.75331544876098633 4.14043331146240234 -0.215110152959823608
-1.72640883922576904 4.16654014587402344 -0.222357213497161865
-1.73936200141906738 4.15191841125488281 -0.272025823593139648
-1.73653137683868408 4.13855504989624023 -0.258274286985397339
-1.53962039947509766 3.84166979789733887 -0.334585040807723999
-1.69110417366027832 3.98448061943054199 -0.361304610967636108
-1.69046366214752197 3.98333334922790527 -0.365933120250701904
-1.7174384593963623 4.11061382293701172 -0.440914779901504517
-1.69567692279815674 4.13225269317626953 -0.439729779958724976
-1.71732056140899658 4.11782073974609375 -0.423373520374298096
-1.67081558704376221 4.12456846237182617 -0.443738937377929688
-1.70853173732757568 4.11499595642089844 -0.431230485439300537
-1.72245168685913086 4.09485054016113281 -0.453298598527908325
-1.70618665218353271 4.15260791778564453 -0.420809000730514526
-1.75797832012176514 4.12597131729125977 -0.42434045672416687
-1.75226390361785889 4.10430097579956055 -0.413814157247543335
-1.70600450038909912 4.03714418411254883 -0.428848713636398315
-1.71482455730438232 4.11631202697753906 -0.408780068159103394
-1.72686636447906494 4.11120700836181641 -0.418646425008773804
-1.71927869319915771 4.108795166015625 -0.420365959405899048
-1.7369314432144165 4.11844110488891602 -0.443906068801879883
-1.74043929576873779 4.10535097122192383 -0.473696768283843994
-1.72504818439483643 4.11248207092285156 -0.422078162431716919
-1.71768403053283691 4.07995319366455078 -0.480817228555679321
-1.72037053108215332 4.09792613983154297 -0.441921234130859375
-1.71266078948974609 4.12607765197753906 -0.418053895235061646
-1.71466124057769775 4.09251976013183594 -0.462828874588012695
-1.73190367221832275 4.12578773498535156 -0.414526402950286865
-1.70321524143218994 4.11845874786376953 -0.497678220272064209
-1.69288814067840576 3.98439931869506836 -0.360951364040374756
-1.71048378944396973 4.09545278549194336 -0.422955065965652466
-1.72074770927429199 4.11037254333496094 -0.419731259346008301
-1.72036612033843994 4.09635353088378906 -0.394174903631210327
-1.72361922264099121 4.08121299743652344 -0.400995790958404541
-1.70142948627471924 4.09120464324951172 -0.406663477420806885
-1.67735981941223145 4.1050114631652832 -0.399043172597885132
-1.76360583305358887 4.08064794540405273 -0.432068943977355957
-1.69142544269561768 4.11665678024291992 -0.391358733177185059
-1.68273699283599854 4.11620187759399414 -0.439000964164733887
-1.69053351879119873 4.09231376647949219 -0.386727333068847656
-1.6917569637298584 3.9859468936920166 -0.362442344427108765
-1.6894301176071167 4.10614967346191406 -0.404472082853317261
-1.69708752632141113 4.08284616470336914 -0.424424260854721069
-1.69447934627532959 4.09423065185546875 -0.370207220315933228
-1.72392082214355469 4.0835270881652832 -0.38706013560295105
-1.67457735538482666 4.11973905563354492 -0.397400975227355957
-1.70305311679840088 4.13502311706542969 -0.44072386622428894
-1.71969759464263916 4.09242916107177734 -0.411154866218566895
-1.63503837585449219 4.08339738845825195 -0.405185401439666748
-1.65418195724487305 4.12743282318115234 -0.382010370492935181
-1.68757998943328857 4.099365234375 -0.387758374214172363
-1.69624853134155273 4.12663841247558594 -0.435707449913024902
-1.70330214500427246 4.09450197219848633 -0.393248558044433594
-1.67587864398956299 4.09954214096069336 -0.382120668888092041
-1.70914018154144287 4.11333560943603516 -0.414845675230026245
-1.68542885780334473 4.132965087890625 -0.399466246366500854
-1.6894690990447998 4.07930183410644531 -0.390323936939239502
-1.68780982494354248 4.08803892135620117 -0.385889321565628052
-1.68350541591644287 4.0773930549621582 -0.439491599798202515
-1.71002781391143799 4.10714912414550781 -0.39962160587310791
-1.71157276630401611 4.09708738327026367 -0.36383095383644104
-1.67555415630340576 4.11833047866821289 -0.377768635749816895
-1.70238852500915527 4.12781906127929688 -0.384187191724777222
-1.7078697681427002 4.12184476852416992 -0.381649762392044067
-1.65136885643005371 4.12284708023071289 -0.411708831787109375
-1.72484159469604492 4.09250450134277344 -0.405724912881851196
-1.67610549926757812 4.11700868606567383 -0.335096448659896851
-1.68414866924285889 4.10877227783203125 -0.421555072069168091
-1.69127023220062256 3.98069262504577637 -0.36393246054649353
-1.76146018505096436 4.09629297256469727 -0.270761221647262573
-1.7696911096572876 4.06125831604003906 -0.292642414569854736
-1.72976994514465332 4.14194774627685547 -0.260994553565979004
-1.7614283561706543 4.06502628326416016 -0.282645434141159058
-1.73557555675506592 4.0535426139831543 -0.259348005056381226
-1.75351965427398682 4.04795455932617188 -0.290085911750793457
-1.75494551658630371 4.12989187240600586 -0.264802873134613037
-1.7653956413269043 4.07264423370361328 -0.269481033086776733
-1.76646304130554199 4.09142971038818359 -0.236978575587272644
-1.75817739963531494 4.09263992309570312 -0.247891068458557129
-1.74390041828155518 4.08811855316162109 -0.309537142515182495
-1.72520971298217773 4.06538200378417969 -0.2560863196849823
-0.5698586106300354 2.73230552673339844 -0.277601957321166992
-0.548344552516937256 2.9899907112121582 -0.26528504490852356
-0.531936049461364746 3.2486720085144043 -0.277600884437561035
-0.512829422950744629 3.50492286682128906 -0.28834494948387146
-0.505281746387481689 3.50818467140197754 -0.289535284042358398
-0.497349947690963745 3.74189186096191406 -0.411417007446289062
-0.489005357027053833 3.99384212493896484 -0.551767885684967041
-0.484749048948287964 3.9933164119720459 -0.548700869083404541
-0.471231192350387573 4.21880245208740234 -0.578558743000030518
-0.455007433891296387 4.4346160888671875 -0.593201518058776855
-0.451835900545120239 4.43578767776489258 -0.591414451599121094
-0.425713658332824707 4.69688987731933594 -0.499724119901657104
-0.425418287515640259 4.69736385345458984 -0.501923322677612305
-0.370984971523284912 4.89069890975952148 -0.521847546100616455
-0.369945347309112549 4.89777994155883789 -0.512480437755584717
-0.346918433904647827 4.93542337417602539 -0.518500804901123047
-0.344883978366851807 4.84487247467041016 -0.53346717357635498
-0.36716848611831665 4.90705442428588867 -0.516345798969268799
-0.357840418815612793 4.87945461273193359 -0.5316886305809021
-0.428598135709762573 4.6956477165222168 -0.49977719783782959
-0.490825474262237549 4.86429452896118164 -0.419365376234054565
-0.52923506498336792 4.84100580215454102 -0.396414905786514282
-0.462688148021697998 4.84994840621948242 -0.392053663730621338
-0.477140754461288452 4.89249610900878906 -0.379697233438491821
-0.511982977390289307 4.89829826354980469 -0.422524958848953247
-0.479355275630950928 4.82342243194580078 -0.401663810014724731
-0.482562094926834106 4.84904384613037109 -0.4123116135597229
-0.498045176267623901 4.89509296417236328 -0.437381535768508911
-0.510136544704437256 4.85932302474975586 -0.42672160267829895
-0.531375110149383545 4.85470390319824219 -0.429313093423843384
-0.488551229238510132 4.85566139221191406 -0.428438007831573486
-0.517636299133300781 4.88568019866943359 -0.395739376544952393
-0.497634768486022949 4.86606168746948242 -0.423529595136642456
-0.477931559085845947 4.83161163330078125 -0.40331953763961792
-0.496014565229415894 4.83829927444458008 -0.398796737194061279
-0.470183879137039185 4.86767435073852539 -0.445800065994262695
-0.464387655258178711 4.84989404678344727 -0.432864010334014893
-0.495995432138442993 4.87692928314208984 -0.408459573984146118
-0.513848543167114258 4.90010404586791992 -0.469654381275177002
-0.506218850612640381 4.86114215850830078 -0.427474856376647949
-0.505801558494567871 4.88361072540283203 -0.457217186689376831
-0.525295913219451904 4.87190341949462891 -0.391324996948242188
-0.522632181644439697 4.89661455154418945 -0.402451455593109131
-0.427077144384384155 4.69445991516113281 -0.500802576541900635
-0.493583023548126221 4.87374162673950195 -0.493142187595367432
-0.481780588626861572 4.8913884162902832 -0.494641035795211792
-0.495851308107376099 4.88972854614257812 -0.484005987644195557
-0.475206345319747925 4.90671920776367188 -0.488020956516265869
-0.44209820032119751 4.86173391342163086 -0.518077969551086426
-0.541834592819213867 4.86195898056030273 -0.495700538158416748
-0.511963069438934326 4.87258148193359375 -0.490633130073547363
-0.425513893365859985 4.69621038436889648 -0.498303025960922241
-0.456169307231903076 4.86121654510498047 -0.473843008279800415
-0.439291685819625854 4.85910272598266602 -0.47512519359588623
-0.475115656852722168 4.8439178466796875 -0.4751778244972229
-0.45008888840675354 4.87837982177734375 -0.467306435108184814
-0.401223927736282349 4.83284139633178711 -0.42212212085723877
-0.494124293327331543 4.8565521240234375 -0.466369509696960449
-0.463000029325485229 4.86648321151733398 -0.498251408338546753
-0.43975907564163208 4.89099359512329102 -0.536801338195800781
-0.423302263021469116 4.88085508346557617 -0.444851011037826538
-0.492664992809295654 4.85004997253417969 -0.462727934122085571
-0.471007287502288818 4.83756780624389648 -0.502626121044158936
-0.452855080366134644 4.43314123153686523 -0.593066871166229248
-0.459471017122268677 4.75844907760620117 -0.614942312240600586
-0.458047628402709961 4.75429964065551758 -0.614289641380310059
-0.525226235389709473 4.98884105682373047 -0.681080400943756104
-0.560683548450469971 4.980743408203125 -0.686208248138427734
-0.513597786426544189 5.01214027404785156 -0.697272002696990967
-0.547439694404602051 4.93016719818115234 -0.666369795799255371
-0.544865429401397705 5.02959203720092773 -0.666055500507354736
-0.461483031511306763 5.03959417343139648 -0.668966770172119141
-0.495519280433654785 4.96712779998779297 -0.694426655769348145
-0.519876718521118164 4.95650768280029297 -0.661017000675201416
-0.515044689178466797 4.99091482162475586 -0.665373027324676514
-0.551473736763000488 5.01731348037719727 -0.66665118932723999
-0.516076445579528809 4.97122335433959961 -0.684762835502624512
-0.520898699760437012 4.97928428649902344 -0.681913375854492188
-0.504062831401824951 5.00606346130371094 -0.682648003101348877
-0.492331713438034058 5.00240135192871094 -0.661442875862121582
-0.513538062572479248 4.99607276916503906 -0.675838828086853027
-0.582226216793060303 4.96593761444091797 -0.677180767059326172
-0.543072879314422607 4.98506879806518555 -0.648130297660827637
-0.51121598482131958 5.00385713577270508 -0.701202034950256348
-0.52857518196105957 5.01737785339355469 -0.697736203670501709
-0.518954575061798096 5.01764249801635742 -0.685603797435760498
-0.505277752876281738 5.01934576034545898 -0.649193227291107178
-0.456479102373123169 4.75975751876831055 -0.615138351917266846
-0.362521171569824219 4.96961307525634766 -0.621525168418884277
-0.385443031787872314 4.94188165664672852 -0.599798977375030518
-0.400908499956130981 4.96701240539550781 -0.626848697662353516
-0.378949165344238281 4.96999406814575195 -0.588959693908691406
-0.310704171657562256 4.94787025451660156 -0.602883458137512207
-0.366742372512817383 4.99217653274536133 -0.609652400016784668
-0.350530833005905151 4.98966312408447266 -0.625768542289733887
-0.38987240195274353 4.93197822570800781 -0.638336360454559326
-0.329200267791748047 4.96610927581787109 -0.637653172016143799
-0.330286383628845215 4.96849727630615234 -0.592426121234893799
-0.324495136737823486 4.96156072616577148 -0.59947282075881958
-0.302803456783294678 4.93903684616088867 -0.627013683319091797
-0.372227221727371216 4.96512460708618164 -0.637847185134887695
-0.325985074043273926 4.98842763900756836 -0.598869025707244873
-0.345268368721008301 4.94314193725585938 -0.6437034010887146
-0.387606173753738403 4.98826980590820312 -0.608158230781555176
-0.368840128183364868 4.9771876335144043 -0.616429150104522705
-0.364611238241195679 4.98621702194213867 -0.61869126558303833
-0.326935380697250366 4.97427034378051758 -0.646339774131774902
-0.334261894226074219 4.95039606094360352 -0.601465165615081787
-0.356885343790054321 4.97633600234985352 -0.643641173839569092
-0.386964410543441772 4.96789360046386719 -0.622757017612457275
-0.359481513500213623 4.96960115432739258 -0.610048055648803711
-0.459690958261489868 4.7571258544921875 -0.615760207176208496
-0.467878967523574829 4.97789192199707031 -0.651059627532958984
-0.488698482513427734 5.0442352294921875 -0.630501449108123779
-0.487763941287994385 4.98920154571533203 -0.608355283737182617
-0.472160309553146362 4.95316743850708008 -0.671795904636383057
-0.487750083208084106 4.96864461898803711 -0.627780139446258545
-0.495965540409088135 5.02630233764648438 -0.62786555290222168
-0.486751407384872437 4.93007516860961914 -0.619456052780151367
-0.471092253923416138 4.99151277542114258 -0.685744822025299072
-0.490463525056838989 4.99917507171630859 -0.657112658023834229
-0.483726143836975098 4.93701028823852539 -0.622676432132720947
-0.482446998357772827 4.95438098907470703 -0.660045862197875977
-0.475864171981811523 5.00255870819091797 -0.676334142684936523
-0.49977073073387146 5.01676750183105469 -0.644088149070739746
-0.474787980318069458 4.93986320495605469 -0.68954002857208252
-0.466856181621551514 4.96665096282958984 -0.670497477054595947
-0.462641298770904541 4.98573970794677734 -0.637983620166778564
-0.475951105356216431 4.93982601165771484 -0.64111793041229248
-0.476264476776123047 4.98748493194580078 -0.628094196319580078
-0.497253715991973877 4.98201417922973633 -0.602746844291687012
-0.414643764495849609 4.98669195175170898 -0.63424605131149292
-0.491884320974349976 4.99577903747558594 -0.690071284770965576
-0.451362162828445435 5.02089881896972656 -0.620854973793029785
-0.447336733341217041 4.95200109481811523 -0.626565277576446533
-0.476486533880233765 4.94272089004516602 -0.672034263610839844
-0.483183324337005615 4.97879600524902344 -0.646009564399719238
-0.481416106224060059 4.95997762680053711 -0.659588158130645752
-0.47700577974319458 4.96637058258056641 -0.669806718826293945
-0.458507686853408813 4.75762510299682617 -0.614803552627563477
-0.381231248378753662 4.93738651275634766 -0.694993793964385986
-0.373322963714599609 4.92725563049316406 -0.719118237495422363
-0.383635610342025757 4.93871355056762695 -0.656201720237731934
-0.366597265005111694 4.92889547348022461 -0.65924149751663208
-0.405299514532089233 4.94363069534301758 -0.675465881824493408
-0.412974447011947632 4.91769838333129883 -0.715948224067687988
-0.378343492746353149 4.91565465927124023 -0.692298412322998047
-0.489943653345108032 3.99125266075134277 -0.551796197891235352
-0.534396886825561523 4.33609628677368164 -0.51109158992767334
-0.533081710338592529 4.33864021301269531 -0.514172792434692383
-0.527322590351104736 4.5741114616394043 -0.46565854549407959
-0.52676922082901001 4.57083559036254883 -0.46697002649307251
-0.557786405086517334 4.70155572891235352 -0.418609261512756348
-0.546375930309295654 4.72347593307495117 -0.396329879760742188
-0.568538844585418701 4.72200441360473633 -0.382754802703857422
-0.557230234146118164 4.66794776916503906 -0.419232487678527832
-0.55024486780166626 4.73668432235717773 -0.402306348085403442
-0.567153573036193848 4.71916055679321289 -0.43099549412727356
-0.530350148677825928 4.66753005981445312 -0.432908058166503906
-0.563303470611572266 4.70678377151489258 -0.405646681785583496
-0.520164906978607178 4.72018194198608398 -0.40993925929069519
-0.528131544589996338 4.56906366348266602 -0.467798143625259399
-0.478283941745758057 4.71337461471557617 -0.498645782470703125
-0.475805729627609253 4.71211814880371094 -0.48157915472984314
-0.459708303213119507 4.70185613632202148 -0.482589095830917358
-0.476010054349899292 4.72126483917236328 -0.50471419095993042
-0.50357431173324585 4.72176361083984375 -0.489496618509292603
-0.496120303869247437 4.73317384719848633 -0.483383774757385254
-0.449416518211364746 4.72443008422851562 -0.514458894729614258
-0.456987440586090088 4.70301389694213867 -0.531567215919494629
-0.438004672527313232 4.72910976409912109 -0.51247715950012207
-0.487062036991119385 4.74303770065307617 -0.483941256999969482
-0.497917801141738892 4.75225973129272461 -0.527277171611785889
-0.458439826965332031 4.69491004943847656 -0.465772002935409546
-0.493709832429885864 4.73496103286743164 -0.509182393550872803
-0.493193507194519043 4.69542837142944336 -0.512571394443511963
-0.464287668466567993 4.73678779602050781 -0.489970564842224121
-0.461648881435394287 4.72878551483154297 -0.475274324417114258
-0.483340680599212646 4.73112201690673828 -0.512409389019012451
-0.490587949752807617 4.73110151290893555 -0.444799631834030151
-0.479578763246536255 4.71572113037109375 -0.482849448919296265
-0.473558932542800903 4.69749975204467773 -0.489471793174743652
-0.529607653617858887 4.34110021591186523 -0.516436457633972168
-0.604342997074127197 4.60500001907348633 -0.496575325727462769
-0.60457080602645874 4.60407018661499023 -0.500878751277923584
-0.64337080717086792 4.77000188827514648 -0.367158412933349609
-0.667738735675811768 4.78508186340332031 -0.387067019939422607
-0.653736710548400879 4.76147651672363281 -0.34378737211227417
-0.64758223295211792 4.76928424835205078 -0.370778650045394897
-0.658626854419708252 4.8053746223449707 -0.374118149280548096
-0.66759800910949707 4.77154541015625 -0.35084003210067749
-0.647975921630859375 4.76453208923339844 -0.427323073148727417
-0.662029623985290527 4.76215124130249023 -0.37126508355140686
-0.649031460285186768 4.77259063720703125 -0.378307431936264038
-0.651185393333435059 4.72017240524291992 -0.349842935800552368
-0.659479141235351562 4.74595069885253906 -0.374022126197814941
-0.63783109188079834 4.79293632507324219 -0.368814200162887573
-0.678254544734954834 4.70546245574951172 -0.384904533624649048
-0.684745311737060547 4.75252532958984375 -0.358866006135940552
-0.646341085433959961 4.7567901611328125 -0.358732551336288452
-0.655119597911834717 4.75088596343994141 -0.385290980339050293
-0.658256590366363525 4.79127168655395508 -0.386186212301254272
-0.587875604629516602 4.75479602813720703 -0.385568916797637939
-0.671499848365783691 4.75789880752563477 -0.365141391754150391
-0.640685558319091797 4.74611520767211914 -0.413118898868560791
-0.631715893745422363 4.76216506958007812 -0.357061713933944702
-0.634844958782196045 4.78456020355224609 -0.356728136539459229
-0.601233124732971191 4.60751533508300781 -0.500719904899597168
-0.654229700565338135 4.76154375076293945 -0.434559524059295654
-0.636570453643798828 4.75558614730834961 -0.433968782424926758
-0.658725738525390625 4.76337289810180664 -0.46311303973197937
-0.658423423767089844 4.78501749038696289 -0.450277179479598999
-0.587146401405334473 4.73079919815063477 -0.426393657922744751
-0.63556140661239624 4.78637313842773438 -0.435925275087356567
-0.604386866092681885 4.60739850997924805 -0.500375747680664062
-0.662168145179748535 4.79641628265380859 -0.397725939750671387
-0.655425190925598145 4.77967023849487305 -0.366376876831054688
-0.679638087749481201 4.83209943771362305 -0.414247065782546997
-0.655703127384185791 4.77070999145507812 -0.399063855409622192
-0.644660711288452148 4.7467951774597168 -0.366663187742233276
-0.652539551258087158 4.83657217025756836 -0.390683531761169434
-0.697855591773986816 4.78796482086181641 -0.375285208225250244
-0.649011552333831787 4.76206588745117188 -0.378600209951400757
-0.657558441162109375 4.78109264373779297 -0.390117555856704712
-0.702637791633605957 4.76515388488769531 -0.415956586599349976
-0.641770541667938232 4.79423666000366211 -0.408005505800247192
-0.687565624713897705 4.80455255508422852 -0.354749560356140137
-0.704048871994018555 4.77195215225219727 -0.409086823463439941
-0.605315744876861572 4.60875511169433594 -0.500526130199432373
-0.546438872814178467 4.7885899543762207 -0.411173164844512939
-0.571118533611297607 4.75237941741943359 -0.359071671962738037
-0.58436274528503418 4.80234718322753906 -0.437372505664825439
-0.603841006755828857 4.76608514785766602 -0.371612310409545898
-0.550004720687866211 4.77110576629638672 -0.440786689519882202
-0.570393860340118408 4.80184698104858398 -0.380090564489364624
-0.557733058929443359 4.82145214080810547 -0.439994096755981445
-0.533713579177856445 4.79093599319458008 -0.435657739639282227
-0.551065325736999512 4.77927589416503906 -0.380884289741516113
-0.584688961505889893 4.8340907096862793 -0.405563920736312866
-0.54068225622177124 4.80968475341796875 -0.449159055948257446
-0.512512862682342529 4.82613468170166016 -0.402913987636566162
-0.593314468860626221 4.78638124465942383 -0.405846506357192993
-0.506252288818359375 4.81630134582519531 -0.420367181301116943
-0.546324431896209717 4.74769973754882812 -0.476824492216110229
-0.522025942802429199 4.78785085678100586 -0.413483858108520508
-0.542433798313140869 4.8199310302734375 -0.47106701135635376
-0.565838634967803955 4.81414031982421875 -0.411363184452056885
-0.537904798984527588 4.75586414337158203 -0.37929728627204895
-0.589781284332275391 4.81338167190551758 -0.403108537197113037
-0.554399788379669189 4.78983163833618164 -0.428676009178161621
-0.53109133243560791 4.3360447883605957 -0.51776885986328125
-0.493772506713867188 4.59171199798583984 -0.441051512956619263
-0.496893584728240967 4.5894017219543457 -0.439389705657958984
-0.509352326393127441 4.75942707061767578 -0.351690590381622314
-0.482120692729949951 4.76627492904663086 -0.359994232654571533
-0.504872500896453857 4.75482463836669922 -0.344768702983856201
-0.541430175304412842 4.72404718399047852 -0.326664835214614868
-0.518364369869232178 4.75540685653686523 -0.380015432834625244
-0.493279725313186646 4.76648950576782227 -0.364095628261566162
-0.499768435955047607 4.71849155426025391 -0.341585934162139893
-0.522204935550689697 4.72480249404907227 -0.34394305944442749
-0.496169179677963257 4.59087944030761719 -0.437031984329223633
-0.546709656715393066 4.77112817764282227 -0.43572545051574707
-0.534756600856781006 4.76384544372558594 -0.438509166240692139
-0.555437326431274414 4.77439737319946289 -0.442027658224105835
-0.515585184097290039 4.77051496505737305 -0.430067747831344604
-0.524442732334136963 4.74855661392211914 -0.396714538335800171
-0.542633891105651855 4.79966115951538086 -0.476183056831359863
-0.542966127395629883 4.78536653518676758 -0.453049212694168091
-0.530393362045288086 4.76931524276733398 -0.454127311706542969
-0.557019591331481934 4.75912237167358398 -0.431545048952102661
-0.497236490249633789 4.59356594085693359 -0.438482403755187988
-0.514480769634246826 4.78799915313720703 -0.398609668016433716
-0.542257249355316162 4.76388788223266602 -0.353135079145431519
-0.497692972421646118 4.83068227767944336 -0.40334746241569519
-0.507888853549957275 4.74339389801025391 -0.362959414720535278
-0.523357033729553223 4.7756037712097168 -0.390531718730926514
-0.520942807197570801 4.79117631912231445 -0.397230774164199829
-0.498245328664779663 4.82393074035644531 -0.44200432300567627
-0.502048134803771973 4.79520034790039062 -0.389181196689605713
-0.538608968257904053 4.82538795471191406 -0.424208194017410278
-0.507718443870544434 4.78931379318237305 -0.388773739337921143
-0.513337492942810059 4.81502294540405273 -0.379663139581680298
-0.521367549896240234 4.80653142929077148 -0.392673283815383911
-0.501000702381134033 4.77134799957275391 -0.376910299062728882
-0.521398067474365234 4.75523662567138672 -0.406824022531509399
-0.498512923717498779 4.78916740417480469 -0.382798939943313599
-0.523275613784790039 4.77885293960571289 -0.382367432117462158
-0.555788278579711914 4.79515409469604492 -0.39597669243812561
-0.489741146564483643 4.79468870162963867 -0.408588826656341553
-0.509311497211456299 4.80306196212768555 -0.403898388147354126
-0.510499060153961182 4.78355169296264648 -0.35358119010925293
-0.522472977638244629 4.81297063827514648 -0.374010980129241943
-0.552354276180267334 4.81377696990966797 -0.392526566982269287
-0.547262847423553467 4.82283115386962891 -0.396491914987564087
-0.531759560108184814 4.34142684936523438 -0.51538240909576416
-0.523438096046447754 4.59040212631225586 -0.423612117767333984
-0.52703779935836792 4.58956527709960938 -0.422489136457443237
-0.471125811338424683 4.77313327789306641 -0.336864948272705078
-0.496523052453994751 4.76252985000610352 -0.369012504816055298
-0.46276131272315979 4.76630783081054688 -0.31680750846862793
-0.465277224779129028 4.76779842376708984 -0.354523897171020508
-0.481719702482223511 4.78328895568847656 -0.3333759605884552
-0.470511823892593384 4.76953411102294922 -0.319404959678649902
-0.452598899602890015 4.8068385124206543 -0.341314882040023804
-0.479351460933685303 4.78528738021850586 -0.359145373106002808
-0.445182263851165771 4.83077812194824219 -0.359870731830596924
-0.458941817283630371 4.79623746871948242 -0.316938519477844238
-0.472964197397232056 4.7651829719543457 -0.328576654195785522
-0.475037068128585815 4.77584743499755859 -0.330803871154785156
-0.49183085560798645 4.78164100646972656 -0.37209010124206543
-0.47432824969291687 4.74377584457397461 -0.377172708511352539
-0.528958916664123535 4.59069681167602539 -0.422480851411819458
-0.539252042770385742 4.76223945617675781 -0.359187990427017212
-0.570800304412841797 4.7336277961730957 -0.378912627696990967
-0.570297658443450928 4.78136062622070312 -0.333256363868713379
-0.556238412857055664 4.78560113906860352 -0.360390037298202515
-0.523306131362915039 4.74698781967163086 -0.348758012056350708
-0.578787744045257568 4.7441253662109375 -0.371116906404495239
-0.531086444854736328 4.76970005035400391 -0.394968777894973755
-0.511139512062072754 4.7480006217956543 -0.31759294867515564
-0.538865864276885986 4.74557781219482422 -0.378046631813049316
-0.590215027332305908 4.82322263717651367 -0.390042006969451904
-0.539160966873168945 4.73161029815673828 -0.346268922090530396
-0.494258522987365723 3.99767494201660156 -0.551195621490478516
-0.367957979440689087 4.27630043029785156 -0.762285888195037842
-0.371995836496353149 4.27102184295654297 -0.764165997505187988
-0.251518070697784424 4.47084522247314453 -0.938374102115631104
-0.260281413793563843 4.46872949600219727 -0.935844123363494873
-0.225917384028434753 4.58740663528442383 -1.07363808155059814
-0.241775363683700562 4.61297988891601562 -1.02869546413421631
-0.234377995133399963 4.57352447509765625 -1.076590895652771
-0.257764697074890137 4.64869213104248047 -1.07950806617736816
-0.252527087926864624 4.63680458068847656 -1.08293092250823975
-0.223326697945594788 4.59109592437744141 -1.06532931327819824
-0.222880780696868896 4.56742238998413086 -1.10270500183105469
-0.232630133628845215 4.6011967658996582 -1.08338987827301025
-0.25779569149017334 4.57079362869262695 -1.11287558078765869
-0.224496901035308838 4.5917515754699707 -1.07223677635192871
-0.228725850582122803 4.58213567733764648 -1.08821511268615723
-0.225275501608848572 4.59347820281982422 -1.03088092803955078
-0.229574188590049744 4.57410812377929688 -1.07129812240600586
-0.221946239471435547 4.55903482437133789 -1.09949684143066406
-0.216932967305183411 4.58507680892944336 -1.04304015636444092
-0.240222185850143433 4.59728574752807617 -1.0700002908706665
-0.232864081859588623 4.62521791458129883 -1.07182872295379639
-0.260665416717529297 4.47094869613647461 -0.93393552303314209
-0.275482475757598877 4.61557531356811523 -1.0942758321762085
-0.293140411376953125 4.63670444488525391 -1.07365548610687256
-0.287880986928939819 4.62314414978027344 -1.0715181827545166
-0.238983109593391418 4.64315080642700195 -1.1134345531463623
-0.223671481013298035 4.61722326278686523 -1.07894361019134521
-0.296043127775192261 4.58886480331420898 -1.12803530693054199
-0.266172915697097778 4.62040090560913086 -1.11116635799407959
-0.25070422887802124 4.64051198959350586 -1.10329484939575195
-0.282601147890090942 4.60760831832885742 -1.07857048511505127
-0.248775064945220947 4.6115260124206543 -1.08964264392852783
-0.262318581342697144 4.62133169174194336 -1.06271183490753174
-0.253658413887023926 4.58451652526855469 -1.10475575923919678
-0.304013907909393311 4.60971403121948242 -1.10687410831451416
-0.254157662391662598 4.66498374938964844 -1.11127388477325439
-0.369800597429275513 4.27475833892822266 -0.764636039733886719
-0.411300390958786011 4.54046630859375 -0.743634343147277832
-0.413812756538391113 4.54580259323120117 -0.740539193153381348
-0.391099125146865845 4.74230337142944336 -0.696071445941925049
-0.358204543590545654 4.71298599243164062 -0.704986810684204102
-0.394252121448516846 4.73168706893920898 -0.714525878429412842
-0.377456188201904297 4.72102022171020508 -0.688004434108734131
-0.380393445491790771 4.69889211654663086 -0.69207996129989624
-0.380574941635131836 4.74274301528930664 -0.686649799346923828
-0.336855947971343994 4.73974609375 -0.678245902061462402
-0.403550386428833008 4.75255632400512695 -0.727133214473724365
-0.350891083478927612 4.77324247360229492 -0.695683896541595459
-0.374961048364639282 4.75683069229125977 -0.709240436553955078
-0.422081679105758667 4.76823616027832031 -0.696709334850311279
-0.373958706855773926 4.77878665924072266 -0.692016482353210449
-0.404171019792556763 4.74657154083251953 -0.713462173938751221
-0.380833864212036133 4.72730636596679688 -0.671346783638000488
-0.377693802118301392 4.75699901580810547 -0.686154186725616455
-0.411618858575820923 4.54054117202758789 -0.74007028341293335
-0.349452376365661621 4.69604682922363281 -0.636394262313842773
-0.353716731071472168 4.68549728393554688 -0.633324146270751953
-0.375078290700912476 4.70096158981323242 -0.619954109191894531
-0.351121664047241211 4.70823335647583008 -0.654337108135223389
-0.373463898897171021 4.65583610534667969 -0.642019748687744141
-0.346364349126815796 4.71850204467773438 -0.637777805328369141
-0.344144314527511597 4.67589187622070312 -0.605596721172332764
-0.368284821510314941 4.6935272216796875 -0.612591922283172607
-0.365453094244003296 4.69110107421875 -0.645572781562805176
-0.305752009153366089 4.69712257385253906 -0.65107274055480957
-0.325299352407455444 4.73314428329467773 -0.637399673461914062
-0.322837769985198975 4.71072912216186523 -0.655844211578369141
-0.386822402477264404 4.69909763336181641 -0.617412209510803223
-0.345442473888397217 4.70908689498901367 -0.626421213150024414
-0.34387439489364624 4.68975067138671875 -0.659065425395965576
-0.354348689317703247 4.68784618377685547 -0.637601256370544434
-0.371358007192611694 4.66956567764282227 -0.643535077571868896
-0.373051285743713379 4.70648097991943359 -0.606200218200683594
-0.348857074975967407 4.65896224975585938 -0.630473971366882324
-0.344783425331115723 4.70377779006958008 -0.626561999320983887
-0.37178957462310791 4.2765965461730957 -0.766762852668762207
-0.404278844594955444 4.46321582794189453 -0.94691157341003418
-0.402837276458740234 4.46841335296630859 -0.950452744960784912
-0.48472478985786438 4.65429544448852539 -0.987341701984405518
-0.477675408124923706 4.66338205337524414 -1.00791060924530029
-0.511224329471588135 4.64780712127685547 -0.999363720417022705
-0.453851789236068726 4.62549114227294922 -0.967073619365692139
-0.513859927654266357 4.62945270538330078 -0.968538761138916016
-0.503556668758392334 4.65525913238525391 -0.960819423198699951
-0.522236108779907227 4.64525890350341797 -0.973559260368347168
-0.458182662725448608 4.65312337875366211 -1.00149786472320557
-0.511181890964508057 4.6556248664855957 -0.986212849617004395
-0.488331466913223267 4.68957090377807617 -0.96407705545425415
-0.505842030048370361 4.66432046890258789 -1.01046812534332275
-0.473447650671005249 4.63510560989379883 -0.941585004329681396
-0.457029491662979126 4.64319467544555664 -0.989167571067810059
-0.51366269588470459 4.62131261825561523 -1.00054085254669189
-0.500962674617767334 4.6468348503112793 -0.991020441055297852
-0.465142935514450073 4.70374441146850586 -0.965483665466308594
-0.454569816589355469 4.68313264846801758 -0.990898728370666504
-0.482585906982421875 4.65203380584716797 -0.946743547916412354
-0.509934782981872559 4.60929393768310547 -1.03863990306854248
-0.507347643375396729 4.66587305068969727 -0.97776031494140625
-0.52395099401473999 4.65952682495117188 -1.01461160182952881
-0.505914032459259033 4.67800474166870117 -0.996622562408447266
-0.475284993648529053 4.6436467170715332 -1.00885474681854248
-0.460192173719406128 4.66654253005981445 -0.982985079288482666
-0.494610190391540527 4.67316818237304688 -0.985016047954559326
-0.40461200475692749 4.46476888656616211 -0.950157701969146729
-0.430042862892150879 4.58002614974975586 -1.08353066444396973
-0.45325624942779541 4.55777120590209961 -1.04797136783599854
-0.375246107578277588 4.58493995666503906 -1.06610739231109619
-0.39766654372215271 4.55765819549560547 -1.08114099502563477
-0.458347499370574951 4.56496429443359375 -1.11640691757202148
-0.450057059526443481 4.5919642448425293 -1.08093535900115967
-0.470852136611938477 4.59576845169067383 -1.03530609607696533
-0.405162572860717773 4.46605634689331055 -0.948705434799194336
-0.376606643199920654 4.64270925521850586 -1.05431830883026123
-0.363951981067657471 4.68249416351318359 -1.0733102560043335
-0.368184387683868408 4.67193412780761719 -1.09887170791625977
-0.387643545866012573 4.66657543182373047 -1.03514158725738525
-0.37627825140953064 4.67129659652709961 -1.0699772834777832
-0.409517824649810791 4.66007089614868164 -1.0940171480178833
-0.392620176076889038 4.58504152297973633 -1.11246669292449951
-0.375869542360305786 4.65120410919189453 -1.04420018196105957
-0.383463412523269653 4.62315273284912109 -1.04479682445526123
-0.36398431658744812 4.65355348587036133 -1.05290091037750244
-0.368042558431625366 4.60616111755371094 -1.07410717010498047
-0.383314311504364014 4.63247585296630859 -1.06637609004974365
-0.400756716728210449 4.65046119689941406 -1.06410050392150879
-0.372776597738265991 4.27154636383056641 -0.769029617309570312
-0.224638044834136963 4.49860620498657227 -0.781000614166259766
-0.226667672395706177 4.50091266632080078 -0.784723341464996338
-0.124412059783935547 4.64354419708251953 -0.803178608417510986
-0.148367643356323242 4.62360143661499023 -0.835026681423187256
-0.130723446607589722 4.65164995193481445 -0.804196178913116455
-0.109024092555046082 4.66069936752319336 -0.805122435092926025
-0.104293264448642731 4.66067743301391602 -0.788512885570526123
-0.142327725887298584 4.62345409393310547 -0.728467762470245361
-0.111338041722774506 4.63090801239013672 -0.800147175788879395
-0.143510758876800537 4.67492151260375977 -0.811627745628356934
-0.107628986239433289 4.62808370590209961 -0.810436487197875977
-0.0962126478552818298 4.64455652236938477 -0.858088552951812744
-0.120770677924156189 4.66650629043579102 -0.78045576810836792
-0.121657565236091614 4.68044519424438477 -0.786739706993103027
-0.222732186317443848 4.49883556365966797 -0.782146632671356201
-0.257319629192352295 4.68955230712890625 -0.781054913997650146
-0.263959795236587524 4.69766664505004883 -0.757974565029144287
-0.29284369945526123 4.70054769515991211 -0.792674243450164795
-0.238707765936851501 4.67142152786254883 -0.744229376316070557
-0.255099892616271973 4.65505886077880859 -0.747860193252563477
-0.254321098327636719 4.68810558319091797 -0.759686589241027832
-0.242132693529129028 4.68396186828613281 -0.768978238105773926
-0.286158978939056396 4.68694829940795898 -0.776805281639099121
-0.270322322845458984 4.69511127471923828 -0.751089572906494141
-0.263052493333816528 4.66327190399169922 -0.750599801540374756
-0.231375500559806824 4.69801044464111328 -0.77689063549041748
-0.305291861295700073 4.69426441192626953 -0.768563508987426758
-0.270799338817596436 4.71290922164916992 -0.787787079811096191
-0.246551021933555603 4.69037818908691406 -0.757842659950256348
-0.233631953597068787 4.66977453231811523 -0.761291563510894775
-0.276507347822189331 4.70261526107788086 -0.773850321769714355
-0.301754415035247803 4.67580032348632812 -0.771176815032958984
-0.268038779497146606 4.67896699905395508 -0.815974771976470947
-0.268172472715377808 4.68652534484863281 -0.791658341884613037
-0.224243864417076111 4.5011296272277832 -0.785258769989013672
-0.0876986682415008545 4.64119625091552734 -0.706110894680023193
-0.138642057776451111 4.64524507522583008 -0.730140089988708496
-0.123307913541793823 4.67524576187133789 -0.670926749706268311
-0.0818479880690574646 4.64183521270751953 -0.74214470386505127
-0.0418998971581459045 4.66761922836303711 -0.722576618194580078
-0.110886663198471069 4.6394200325012207 -0.686828196048736572
-0.0936318635940551758 4.62697505950927734 -0.713708877563476562
-0.223280414938926697 4.50189685821533203 -0.78285527229309082
-0.169125646352767944 4.64232110977172852 -0.841123878955841064
-0.195196092128753662 4.64801454544067383 -0.810649216175079346
-0.175994038581848145 4.60814905166625977 -0.838921904563903809
-0.170542269945144653 4.64403676986694336 -0.858984529972076416
-0.12696470320224762 4.69163703918457031 -0.816827595233917236
-0.166045695543289185 4.64155721664428711 -0.854613602161407471
-0.176677197217941284 4.61826562881469727 -0.841001570224761963
-0.171584010124206543 4.66297197341918945 -0.860713362693786621
-0.187184989452362061 4.62822151184082031 -0.814380228519439697
-0.192434981465339661 4.64383268356323242 -0.875419199466705322
-0.146244436502456665 4.62534570693969727 -0.821158528327941895
-0.185298413038253784 4.70650863647460938 -0.818332552909851074
-0.164469406008720398 4.64008092880249023 -0.829216539859771729
-0.164331987500190735 4.67626237869262695 -0.810232996940612793
-0.160255804657936096 4.63431692123413086 -0.837504208087921143
-0.179340288043022156 4.64419221878051758 -0.806849181652069092
-0.162600964307785034 4.63530206680297852 -0.836898863315582275
-0.137470424175262451 4.68836402893066406 -0.85443347692489624
-0.190138399600982666 4.69039773941040039 -0.796592175960540771
-0.129360780119895935 4.64691925048828125 -0.810001373291015625
-0.188720792531967163 4.64814424514770508 -0.841373085975646973
-0.487949579954147339 3.99169778823852539 -0.548932552337646484
-0.51216202974319458 4.36148834228515625 -0.50856393575668335
-0.50924229621887207 4.355255126953125 -0.505430400371551514
-0.552096843719482422 4.61805009841918945 -0.609773933887481689
-0.550596177577972412 4.61441612243652344 -0.605510592460632324
-0.592693090438842773 4.77960205078125 -0.690602958202362061
-0.619405806064605713 4.77642154693603516 -0.710486471652984619
-0.544577956199645996 4.78769922256469727 -0.718486547470092773
-0.603941738605499268 4.75655603408813477 -0.695841193199157715
-0.572557926177978516 4.76627969741821289 -0.700374126434326172
-0.610637366771697998 4.81132984161376953 -0.675587654113769531
-0.625643432140350342 4.77686834335327148 -0.686728477478027344
-0.625047445297241211 4.77640199661254883 -0.701655149459838867
-0.581545889377593994 4.80703592300415039 -0.708372354507446289
-0.631033122539520264 4.81626653671264648 -0.679278016090393066
-0.585124373435974121 4.79840373992919922 -0.613916575908660889
-0.571740448474884033 4.76579856872558594 -0.654106199741363525
-0.588145136833190918 4.81436729431152344 -0.631432712078094482
-0.584889411926269531 4.80390262603759766 -0.706511378288269043
-0.580067932605743408 4.77596616744995117 -0.73111647367477417
-0.583990514278411865 4.74057102203369141 -0.681568145751953125
-0.609819352626800537 4.77603483200073242 -0.718273818492889404
-0.629023075103759766 4.81632709503173828 -0.737902164459228516
-0.579915642738342285 4.7702031135559082 -0.712156057357788086
-0.605532288551330566 4.82076406478881836 -0.65157771110534668
-0.551455378532409668 4.61557722091674805 -0.607975959777832031
-0.621320188045501709 4.78553533554077148 -0.625637590885162354
-0.625860631465911865 4.78937149047851562 -0.619708836078643799
-0.614054739475250244 4.80877923965454102 -0.634347081184387207
-0.598429560661315918 4.79749917984008789 -0.584334313869476318
-0.632308900356292725 4.76680707931518555 -0.650946736335754395
-0.659066677093505859 4.77541208267211914 -0.615834295749664307
-0.630972802639007568 4.78918075561523438 -0.641277849674224854
-0.612830102443695068 4.79988813400268555 -0.654915750026702881
-0.589873194694519043 4.79404973983764648 -0.59844660758972168
-0.615755796432495117 4.7534332275390625 -0.643837511539459229
-0.620927870273590088 4.75814676284790039 -0.58599090576171875
-0.641180157661437988 4.77596902847290039 -0.578498423099517822
-0.630222439765930176 4.80200290679931641 -0.64940190315246582
-0.512901484966278076 4.36053943634033203 -0.500762522220611572
-0.598955869674682617 4.59533977508544922 -0.502273082733154297
-0.597910761833190918 4.59480524063110352 -0.493687301874160767
-0.56335902214050293 4.75408267974853516 -0.546033203601837158
-0.608611822128295898 4.75564765930175781 -0.567258894443511963
-0.498573958873748779 4.73646068572998047 -0.574780464172363281
-0.570172011852264404 4.6978754997253418 -0.53695911169052124
-0.564405918121337891 4.77371978759765625 -0.541758894920349121
-0.588481426239013672 4.77506017684936523 -0.471940726041793823
-0.559585273265838623 4.75004673004150391 -0.55599290132522583
-0.551803350448608398 4.71818208694458008 -0.496195673942565918
-0.591002523899078369 4.76816701889038086 -0.496331661939620972
-0.612040579319000244 4.73926162719726562 -0.532342314720153809
-0.571204841136932373 4.74234199523925781 -0.571106493473052979
-0.588747560977935791 4.76431512832641602 -0.559835851192474365
-0.513237476348876953 4.7464447021484375 -0.530981004238128662
-0.565693855285644531 4.77218866348266602 -0.568694770336151123
-0.562412559986114502 4.73362493515014648 -0.548061907291412354
-0.59806668758392334 4.73426342010498047 -0.536316096782684326
-0.553019821643829346 4.70953750610351562 -0.577435016632080078
-0.56882166862487793 4.74041128158569336 -0.570414364337921143
-0.537722587585449219 4.7217259407043457 -0.519812822341918945
-0.572835803031921387 4.73477935791015625 -0.597400307655334473
-0.552456319332122803 4.70695209503173828 -0.559892833232879639
-0.561159908771514893 4.7351837158203125 -0.538859009742736816
-0.56688845157623291 4.7299346923828125 -0.547167122364044189
-0.534318447113037109 4.73557949066162109 -0.544950246810913086
-0.59659731388092041 4.73617696762084961 -0.490106284618377686
-0.599448323249816895 4.59572887420654297 -0.493612766265869141
-0.643989741802215576 4.75796842575073242 -0.478779613971710205
-0.641777455806732178 4.7877349853515625 -0.463060349225997925
-0.677096307277679443 4.76523303985595703 -0.456186562776565552
-0.642130851745605469 4.73449134826660156 -0.465676367282867432
-0.667911887168884277 4.79108715057373047 -0.482353538274765015
-0.636100471019744873 4.72503185272216797 -0.481283605098724365
-0.668107509613037109 4.73145818710327148 -0.450264066457748413
-0.626554310321807861 4.72639036178588867 -0.411862939596176147
-0.659442305564880371 4.77134799957275391 -0.494892388582229614
-0.629102051258087158 4.73652076721191406 -0.471250921487808228
-0.656824409961700439 4.76111841201782227 -0.500576496124267578
-0.660082638263702393 4.75351095199584961 -0.496591687202453613
-0.629944384098052979 4.77650737762451172 -0.50763016939163208
-0.631133854389190674 4.78422784805297852 -0.49018976092338562
-0.642260134220123291 4.74308443069458008 -0.484185516834259033
-0.669541835784912109 4.74302244186401367 -0.484217971563339233
-0.619212031364440918 4.73012542724609375 -0.472501277923583984
-0.596386432647705078 4.59577751159667969 -0.493326008319854736
-0.684807479381561279 4.73172998428344727 -0.513741791248321533
-0.664375364780426025 4.71149730682373047 -0.532915174961090088
-0.660738587379455566 4.75761556625366211 -0.522091269493103027
-0.704791784286499023 4.70527839660644531 -0.497718989849090576
-0.701339662075042725 4.72209072113037109 -0.527099132537841797
-0.672588050365447998 4.74769878387451172 -0.496297597885131836
-0.665249288082122803 4.75397205352783203 -0.498498708009719849
-0.656364500522613525 4.74623441696166992 -0.502428948879241943
-0.686406075954437256 4.73556613922119141 -0.519534111022949219
-0.702517032623291016 4.70625925064086914 -0.523792445659637451
-0.691376566886901855 4.66435098648071289 -0.486805826425552368
-0.673948228359222412 4.72435474395751953 -0.517469406127929688
-0.732073783874511719 4.75466537475585938 -0.52173691987991333
-0.675386309623718262 4.68549299240112305 -0.516480684280395508
-0.713727176189422607 4.73289871215820312 -0.518820881843566895
-0.703226089477539062 4.73703670501708984 -0.55651015043258667
-0.596455752849578857 4.59410572052001953 -0.49295496940612793
-0.644838333129882812 4.75293064117431641 -0.481072992086410522
-0.634311020374298096 4.74407196044921875 -0.456848561763763428
-0.616431951522827148 4.77948474884033203 -0.478435009717941284
-0.629557251930236816 4.72365140914916992 -0.483603537082672119
-0.638029396533966064 4.77065515518188477 -0.463465750217437744
-0.633277416229248047 4.76851558685302734 -0.509281158447265625
-0.672659635543823242 4.75499629974365234 -0.490569442510604858
-0.654369771480560303 4.75982379913330078 -0.490713119506835938
-0.614349603652954102 4.76305723190307617 -0.469821304082870483
-0.670614361763000488 4.71209478378295898 -0.450540542602539062
-0.626314878463745117 4.77580451965332031 -0.446370989084243774
-0.640862703323364258 4.74559688568115234 -0.487080872058868408
-0.663071632385253906 4.75665998458862305 -0.509487509727478027
-0.66127777099609375 4.79199600219726562 -0.487130522727966309
-0.648064017295837402 4.73095893859863281 -0.431207567453384399
-0.643155395984649658 4.74850034713745117 -0.502293527126312256
-0.598244607448577881 4.72416782379150391 -0.452519685029983521
-0.645862221717834473 4.76404380798339844 -0.516091227531433105
-0.642294466495513916 4.75270557403564453 -0.513648092746734619
-0.512023329734802246 4.35667037963867188 -0.503646373748779297
